0.477367,0.225166,0.313634
0.491971,0.028317,0.193409
0.070372,0.080534,0.239254
0.442581,0.247178,0.169218
0.508191,0.104790,0.246351
0.238374,0.698792,0.208777
0.327943,0.186791,0.482609
0.502613,0.166974,0.293572
0.143851,0.312554,0.412921
0.085436,0.161224,0.386174
0.348173,0.792542,0.157588
0.343143,0.480570,0.257299
0.248793,0.448213,0.207464
0.093750,0.263362,0.334478
0.298313,0.071118,0.074071
0.239311,0.641972,0.128421
0.202350,0.297214,0.109625
0.309220,0.030541,0.041515
0.342810,0.036839,0.489408
0.340001,0.923921,0.186123
0.097584,0.029305,0.103688
0.355305,0.028829,0.313438
0.367048,0.028719,0.272873
0.403670,0.229677,0.438760
0.155891,0.217542,0.445686
0.346614,0.884567,0.391173
0.127223,0.079794,0.433850
0.388062,0.819558,0.377075
0.340641,0.828345,0.146179
0.414641,0.210015,0.111429
0.119533,0.075671,0.132307
0.157887,0.304463,0.130153
0.350732,0.260362,0.099611
0.234204,0.311261,0.130748
0.205010,0.162668,0.069364
0.230298,0.959076,0.263208
0.087831,0.129003,0.414595
0.100993,0.123729,0.450076
0.284887,0.638223,0.122431
0.418319,0.258293,0.127003
0.274658,0.192127,0.502277
0.157988,0.640949,0.379971
0.116806,0.645245,0.282355
0.336459,0.536975,0.256743
0.102442,0.119497,0.099284
0.431002,0.115994,0.460527
0.265982,0.667150,0.388735
0.385003,0.825126,0.165300
0.228979,0.067948,0.465605
0.384987,0.242826,0.108695
0.201862,0.127865,0.490828
0.298942,0.026132,0.287542
0.251331,0.716459,0.365456
0.345727,0.936642,0.344490
0.192823,0.921964,0.360278
0.320409,0.408586,0.204584
0.371767,0.662233,0.347297
0.414688,0.311545,0.347256
0.250445,0.035126,0.042833
0.214079,0.887840,0.394176
0.205691,0.723792,0.197551
0.355831,0.845428,0.397630
0.255425,0.741673,0.159238
0.296364,0.925391,0.381277
0.244733,0.931944,0.183440
0.158982,0.911656,0.235796
0.168694,0.151091,0.081037
0.348025,0.939429,0.221767
0.132504,0.030525,0.331885
0.361174,0.074607,0.096621
0.072748,0.156427,0.192457
0.141133,0.879050,0.247274
0.308359,0.665345,0.168963
0.183076,0.028022,0.487642
0.308211,0.693611,0.214968
0.326625,0.586277,0.350241
0.446159,0.066982,0.179612
0.171514,0.742235,0.326922
0.344155,0.030682,0.142846
0.309017,0.311592,0.145080
0.270626,0.708994,0.185313
0.244979,0.567634,0.202968
0.058812,0.117732,0.198913
0.403326,0.312101,0.404240
0.267316,0.913952,0.149112
0.310770,0.255932,0.469599
0.452794,0.029901,0.300445
0.335960,0.121746,0.053148
0.304923,0.912157,0.155265
0.182727,0.029902,0.345700
0.229667,0.028311,0.212367
0.291667,0.881309,0.136578
0.069696,0.111802,0.382898
0.246144,0.552988,0.340850
0.394313,0.912097,0.241927
0.432508,0.288198,0.173723
0.109789,0.305019,0.343927
0.436725,0.030150,0.232290
0.397784,0.658049,0.303132
0.206249,0.614794,0.371089
0.432177,0.279201,0.384764
0.264723,0.026068,0.253662
0.395189,0.882657,0.213237
0.106491,0.166494,0.433302
0.314416,0.472871,0.215633
0.208172,0.241172,0.460463
0.284281,0.030571,0.140664
0.163734,0.662119,0.241889
0.200205,0.724472,0.352217
0.222001,0.027474,0.256717
0.209789,0.571064,0.223970
0.285194,0.437582,0.198858
0.191213,0.382757,0.242731
0.117865,0.206814,0.432430
0.344748,0.611779,0.184358
0.032271,0.028067,0.262639
0.390035,0.264690,0.434218
0.390601,0.030284,0.148753
0.165610,0.029808,0.130805
0.244291,0.878790,0.142299
0.376917,0.743447,0.336906
0.138932,0.155205,0.456805
0.349981,0.559412,0.291684
0.260237,0.254692,0.478095
0.349328,0.404796,0.234093
0.315996,0.659239,0.390015
0.103486,0.216921,0.390614
0.255648,0.669308,0.170721
0.181393,0.069407,0.445901
0.466874,0.282258,0.252516
0.243235,0.152866,0.050679
0.357395,0.576622,0.254797
0.206416,0.382681,0.345137
0.301501,0.450491,0.344046
0.122307,0.250475,0.138892
0.370885,0.645758,0.396761
0.440178,0.214735,0.140621
0.227760,0.244772,0.083837
0.343186,0.710296,0.339064
0.207396,0.029621,0.107213
0.172654,0.268930,0.113694
0.219133,0.607117,0.185722
0.394566,0.853975,0.357810
0.260504,0.341150,0.381199
0.147242,0.806423,0.330953
0.377161,0.029810,0.424059
0.160784,0.264084,0.434166
0.245066,0.645747,0.423538
0.458638,0.250371,0.210228
0.351502,0.312038,0.173383
0.452909,0.265888,0.344068
0.244333,0.744862,0.390693
0.357256,0.155903,0.479458
0.242020,0.602006,0.367949
0.032667,0.125494,0.267487
0.107211,0.257201,0.180066
0.335049,0.166764,0.065873
0.301637,0.341866,0.376501
0.487846,0.142501,0.346420
0.248136,0.026353,0.290458
0.070143,0.255145,0.268111
0.159726,0.885823,0.206682
0.204675,0.028163,0.059498
0.156293,0.658422,0.307697
0.403650,0.799546,0.328258
0.215079,0.196800,0.476239
0.424628,0.801287,0.278585
0.274259,0.832027,0.119011
0.320330,0.028575,0.346133
0.435230,0.198166,0.434334
0.339034,0.030740,0.392226
0.162428,0.776553,0.350919
0.401266,0.062210,0.112483
0.351048,0.592076,0.219013
0.079285,0.098967,0.173233
0.276410,0.112818,0.025884
0.338273,0.446399,0.316746
0.383400,0.925264,0.291669
0.127194,0.244897,0.425838
0.185016,0.304626,0.432404
0.299374,0.944633,0.198044
0.166627,0.107255,0.073733
0.135273,0.851713,0.307273
0.117933,0.311425,0.295322
0.316009,0.729218,0.179888
0.127786,0.643987,0.235824
0.367817,0.311521,0.383635
0.180908,0.331618,0.227009
0.056265,0.028075,0.205354
0.139155,0.780511,0.296947
0.317777,0.511795,0.222178
0.389013,0.611658,0.291216
0.372797,0.304707,0.121656
0.333757,0.415260,0.339060
0.359924,0.423236,0.274316
0.345503,0.640071,0.144945
0.263280,0.654635,0.278201
0.396251,0.644989,0.175166
0.203023,0.028419,0.305623
0.299698,0.028001,0.210977
0.323525,0.079995,0.475729
0.352153,0.870755,0.158863
0.291077,0.342049,0.170552
0.405017,0.836751,0.207871
0.451707,0.068360,0.354910
0.342988,0.622084,0.382208
0.153244,0.030429,0.389705
0.378076,0.908430,0.360926
0.211488,0.356105,0.195389
0.478879,0.121698,0.382687
0.151593,0.844580,0.200174
0.397168,0.661474,0.262161
0.286675,0.155049,0.508941
0.403864,0.776980,0.236241
0.243298,0.072816,0.076416
0.441938,0.158195,0.443715
0.112017,0.299618,0.198265
0.163069,0.131230,0.473780
0.122613,0.821029,0.271710
0.251970,0.946347,0.350935
0.460769,0.143463,0.411115
0.191584,0.924242,0.199260
0.168739,0.802863,0.380861
0.396418,0.161230,0.089682
0.484726,0.250199,0.278278
0.352403,0.659690,0.177227
0.277152,0.029369,0.071097
0.300116,0.644077,0.429775
0.363833,0.368242,0.240090
0.507598,0.028279,0.299283
0.340785,0.484582,0.298479
0.299635,0.554414,0.343947
0.190006,0.854637,0.392921
0.125872,0.029318,0.137898
0.370955,0.190703,0.463655
0.516496,0.028036,0.253891
0.409534,0.298027,0.134929
0.258752,0.886436,0.413050
0.464533,0.182320,0.176641
0.164269,0.829796,0.166243
0.264232,0.262840,0.073989
0.393561,0.800629,0.198150
0.202793,0.884395,0.160961
0.467756,0.166724,0.377902
0.258954,0.493595,0.209263
0.510375,0.126895,0.302996
0.291001,0.593254,0.368823
0.301571,0.892864,0.407654
0.191138,0.646709,0.399083
0.227461,0.700172,0.339437
0.364448,0.675753,0.307368
0.228535,0.663022,0.380508
0.474443,0.079460,0.325340
0.444505,0.176656,0.124309
0.466346,0.274823,0.305350
0.148842,0.745717,0.280514
0.273718,0.763250,0.416209
0.318959,0.557714,0.213615
0.329055,0.110031,0.503475
0.098082,0.080579,0.379119
0.298312,0.661690,0.295321
0.133812,0.097487,0.097094
0.310015,0.624714,0.151808
0.361838,0.029851,0.359051
0.373362,0.303666,0.429779
0.127688,0.148062,0.097141
0.308696,0.740103,0.385291
0.222182,0.338739,0.366118
0.199806,0.780001,0.389472
0.289802,0.097286,0.506989
0.350965,0.028200,0.062511
0.480289,0.177480,0.211281
0.409481,0.029956,0.400570
0.248510,0.217729,0.483995
0.466702,0.306219,0.282430
0.183056,0.750472,0.180499
0.390028,0.618434,0.239633
0.084004,0.111133,0.133454
0.478086,0.070191,0.257204
0.414804,0.757926,0.278067
0.227067,0.919854,0.377392
0.073889,0.194358,0.335013
0.352706,0.029767,0.189007
0.420967,0.311172,0.297873
0.426052,0.311909,0.211360
0.147584,0.028029,0.472715
0.195606,0.601166,0.335923
0.106854,0.053597,0.409239
0.383890,0.030261,0.220923
0.212801,0.523788,0.260059
0.399461,0.107718,0.079368
0.394673,0.143629,0.467531
0.271342,0.674526,0.215213
0.237317,0.411595,0.348428
0.349753,0.805415,0.396104
0.197081,0.206514,0.085410
0.314928,0.590378,0.194032
0.080677,0.028026,0.142474
0.356560,0.393058,0.309135
0.159269,0.187215,0.095455
0.180488,0.626480,0.174540
0.396648,0.897354,0.325293
0.462660,0.028132,0.419678
0.278299,0.546510,0.202917
0.375292,0.369654,0.282493
0.223514,0.028474,0.340496
0.269899,0.312177,0.147711
0.077203,0.229114,0.318593
0.425662,0.840889,0.260336
0.216795,0.407794,0.210189
0.336158,0.295355,0.103758
0.092910,0.067838,0.339919
0.326973,0.311111,0.410380
0.042638,0.162888,0.269690
0.382296,0.106667,0.478059
0.064790,0.091336,0.324716
0.359383,0.591066,0.310893
0.235595,0.203053,0.068450
0.188527,0.573126,0.272572
0.272698,0.297864,0.470691
0.317079,0.957292,0.239904
0.231992,0.854659,0.410307
0.374633,0.915603,0.206166
0.097605,0.214969,0.173582
0.274482,0.027803,0.344920
0.469484,0.082026,0.207861
0.281155,0.502146,0.345636
0.171858,0.311895,0.195262
0.246611,0.095850,0.499359
0.469869,0.036151,0.159662
0.080576,0.233412,0.227651
0.335912,0.954724,0.285675
0.329822,0.684869,0.289710
0.083331,0.294767,0.287257
0.184317,0.028851,0.264973
0.271633,0.028988,0.178152
0.213612,0.781485,0.155833
0.174567,0.372496,0.276596
0.154483,0.223082,0.107877
0.346041,0.679507,0.215551
0.189155,0.334096,0.342303
0.063242,0.135304,0.350803
0.430074,0.073337,0.417672
0.436643,0.040300,0.446953
0.438781,0.643151,0.273541
0.401957,0.030539,0.303478
0.426612,0.251940,0.417354
0.235035,0.812235,0.139840
0.337243,0.205068,0.077930
0.446094,0.212369,0.398126
0.386113,0.742519,0.238880
0.185741,0.681661,0.272012
0.101102,0.312178,0.254875
0.374906,0.620559,0.355447
0.178485,0.348111,0.305415
0.245058,0.304560,0.094073
0.260106,0.782657,0.136303
0.444172,0.043518,0.116070
0.156461,0.030421,0.237948
0.168751,0.878667,0.371012
0.496396,0.086048,0.288244
0.161315,0.780364,0.201004
0.113218,0.209183,0.131823
0.318247,0.303306,0.452714
0.056264,0.173782,0.306921
0.308360,0.231157,0.073559
0.303814,0.030113,0.107074
0.239757,0.116265,0.041467
0.267348,0.620166,0.403940
0.267592,0.955662,0.217644
0.098487,0.029626,0.228885
0.361268,0.070692,0.450792
0.144080,0.030656,0.202149
0.126180,0.279812,0.401210
0.398752,0.030970,0.344444
0.254057,0.029677,0.461604
0.363929,0.938514,0.257095
0.341172,0.029583,0.446574
0.207712,0.494259,0.288459
0.207283,0.428592,0.240326
0.340747,0.755640,0.163962
0.262585,0.371824,0.179394
0.387341,0.656615,0.215408
0.224020,0.951963,0.223950
0.313816,0.029769,0.172833
0.171029,0.917575,0.324823
0.489122,0.136713,0.203960
0.297105,0.947508,0.350272
0.303235,0.683340,0.352773
0.186891,0.609155,0.209401
0.162449,0.607494,0.274039
0.156735,0.312077,0.309043
0.157974,0.065315,0.112442
0.291419,0.380291,0.368097
0.453018,0.101414,0.430068
0.054673,0.150459,0.231902
0.319581,0.955152,0.320511
0.137497,0.906213,0.278104
0.384176,0.321253,0.299475
0.204794,0.449445,0.295735
0.282743,0.969221,0.260261
0.206591,0.659088,0.173006
0.275645,0.210124,0.053919
0.245806,0.029547,0.376421
0.312120,0.370330,0.188569
0.163128,0.623082,0.331811
0.363729,0.679359,0.257625
0.416449,0.889680,0.269013
0.247702,0.030607,0.123572
0.349920,0.029446,0.103829
0.292909,0.311966,0.104487
0.335930,0.371869,0.352430
0.381133,0.769979,0.366091
0.273394,0.417961,0.361277
0.140387,0.102084,0.461595
0.375916,0.749398,0.197811
0.207044,0.415653,0.320739
0.145189,0.778203,0.241142
0.194380,0.311332,0.145604
0.212858,0.030477,0.165453
0.203761,0.110940,0.054827
0.168078,0.744503,0.227318
0.041367,0.028051,0.311980
0.328066,0.027419,0.256852
0.289267,0.166217,0.046751
0.187646,0.408588,0.279517
0.449524,0.114789,0.098162
0.271277,0.852642,0.427109
0.222778,0.449258,0.332989
0.261291,0.408332,0.191936
0.138461,0.311968,0.375039
0.079038,0.029377,0.295639
0.412931,0.030346,0.190658
0.209450,0.278149,0.450231
0.236315,0.790581,0.407044
0.095295,0.270555,0.218216
0.413894,0.842210,0.318605
0.182899,0.935667,0.258509
0.080339,0.039468,0.380601
0.317956,0.772845,0.401735
0.328131,0.539211,0.317689
0.047286,0.134936,0.312541
0.089085,0.062447,0.207184
0.166265,0.334921,0.264982
0.232336,0.312403,0.446113
0.190227,0.311565,0.385332
0.321338,0.824416,0.412274
0.226415,0.510554,0.224986
0.218028,0.950612,0.323404
0.347796,0.276582,0.448252
0.237952,0.675595,0.258520
0.152266,0.838971,0.356372
0.390335,0.311177,0.165748
0.141882,0.311269,0.231347
0.263416,0.962982,0.308756
0.379436,0.194950,0.092462
0.258553,0.457172,0.346759
0.266366,0.687810,0.336562
0.094566,0.177496,0.154588
0.278815,0.583776,0.182694
0.285520,0.062764,0.486253
0.509785,0.145827,0.260251
0.094228,0.028087,0.436662
0.345354,0.378412,0.204993
0.309428,0.787720,0.142656
0.240751,0.169514,0.494814
0.220372,0.028295,0.493948
0.186510,0.096197,0.474811
0.442026,0.311920,0.249275
0.285712,0.311245,0.433294
0.166079,0.029576,0.428540
0.183541,0.667976,0.332344
0.215317,0.466771,0.235766
0.079354,0.200337,0.207363
0.042855,0.100623,0.294182
0.488316,0.037479,0.343842
0.449204,0.303629,0.326493
0.063005,0.194250,0.242557
0.435917,0.082344,0.126054
0.057170,0.207896,0.285137
0.387633,0.312382,0.243103
0.227617,0.311608,0.399796
0.462185,0.134310,0.137238
0.280396,0.030000,0.398115
0.156651,0.030085,0.293728
0.211985,0.314994,0.181663
0.387129,0.729364,0.278577
0.483028,0.049806,0.225618
0.242994,0.492211,0.335677
0.279386,0.802116,0.424488
0.082849,0.141085,0.157291
0.174537,0.720903,0.268160
0.134108,0.835550,0.236666
0.338799,0.224209,0.467222
0.153718,0.634684,0.202945
0.059623,0.028164,0.346884
0.466671,0.209416,0.350522
0.179462,0.187379,0.464228
0.229967,0.030848,0.412394
0.416025,0.030808,0.265668
0.481359,0.219413,0.243329
0.402823,0.059296,0.441262
0.347262,0.747593,0.376735
0.470208,0.099823,0.166642
0.176207,0.030618,0.178403
0.140875,0.311981,0.169778
0.192668,0.030976,0.392654
0.166980,0.028981,0.071032
0.261852,0.126868,0.515966
0.208415,0.555339,0.303262
0.388283,0.032584,0.076382
0.269882,0.613468,0.155783
0.222887,0.520269,0.316781
0.159438,0.620341,0.237760
0.192430,0.673086,0.219331
0.352430,0.721384,0.208103
0.198779,0.082805,0.084866
0.330417,0.317368,0.372636
0.227925,0.672957,0.301415
0.213047,0.029601,0.447153
0.293645,0.666097,0.253754
0.212349,0.845184,0.146709
0.259556,0.031368,0.516205
0.421470,0.644861,0.235371
0.203008,0.707085,0.232469
0.305358,0.029642,0.459439
0.498789,0.199155,0.271177
0.196023,0.945028,0.293171
0.317903,0.504690,0.330078
0.117186,0.030594,0.262027
0.432226,0.029276,0.150679
0.335606,0.439487,0.225973
0.107495,0.064979,0.169078
0.364693,0.328086,0.341086
0.295463,0.748413,0.152363
0.380208,0.039286,0.471381
0.304933,0.028447,0.499646
0.359044,0.339050,0.205349
0.198377,0.706379,0.306030
0.069883,0.071776,0.289787
0.307325,0.623408,0.398839
0.306133,0.273134,0.084854
0.461230,0.028767,0.371794
0.108174,0.029406,0.187684